# .PCD v0.7 - Point Cloud Data file format
VERSION 0.7
FIELDS x y z
SIZE 4 4 4
TYPE F F F
COUNT 1 1 1
WIDTH 1354
HEIGHT 1
VIEWPOINT 0 0 0 1 0 0 0
POINTS 1354
DATA ascii
-0.30444336 0.032073975 -0.66357422
-0.30224609 0.032165527 -0.66552734
-0.29907227 0.032165527 -0.66552734
-0.29589844 0.032165527 -0.66552734
-0.29248047 0.032104492 -0.66455078
-0.28833008 0.032012939 -0.66210938
-0.28393555 0.031860352 -0.65917969
-0.2800293 0.031768799 -0.65722656
-0.26220703 0.030426025 -0.62939453
-0.24902344 0.029205322 -0.60400391
-0.24536133 0.02911377 -0.60205078
-0.2421875 0.029067993 -0.60107422
-0.2388916 0.029006958 -0.60009766
-0.23608398 0.029006958 -0.60009766
-0.23364258 0.029067993 -0.60107422
-0.23132324 0.02911377 -0.60205078
-0.22888184 0.029159546 -0.60302734
-0.22644043 0.029205322 -0.60400391
-0.22424316 0.029312134 -0.60595703
-0.22180176 0.02935791 -0.60693359
-0.21972656 0.029449463 -0.609375
-0.21789551 0.029602051 -0.61230469
-0.21582031 0.029693604 -0.61425781
-0.21362305 0.029785156 -0.61621094
-0.21105957 0.029846191 -0.6171875
-0.2088623 0.029937744 -0.61914062
-0.20593262 0.029937744 -0.61914062
-0.20336914 0.029983521 -0.62011719
-0.20019531 0.029937744 -0.61914062
-0.19665527 0.029846191 -0.6171875
-0.19311523 0.02973938 -0.61523438
-0.1895752 0.029647827 -0.61328125
-0.18579102 0.029495239 -0.61035156
-0.18151855 0.029251099 -0.60498047
-0.17895508 0.029312134 -0.60595703
-0.1763916 0.02935791 -0.60693359
-0.17407227 0.029449463 -0.609375
-0.17211914 0.029602051 -0.61230469
-0.1697998 0.029693604 -0.61425781
-0.16748047 0.029785156 -0.61621094
-0.16491699 0.029846191 -0.6171875
-0.16223145 0.029891968 -0.61816406
-0.15930176 0.029891968 -0.61816406
-0.15673828 0.029937744 -0.61914062
-0.15380859 0.029937744 -0.61914062
-0.15087891 0.029937744 -0.61914062
-0.14807129 0.029937744 -0.61914062
-0.14538574 0.029983521 -0.62011719
-0.1427002 0.030029297 -0.62109375
-0.14025879 0.030136108 -0.62304688
-0.13793945 0.030273438 -0.62597656
-0.13549805 0.03036499 -0.62841797
-0.13317871 0.030517578 -0.63134766
-0.13061523 0.030609131 -0.63330078
-0.12792969 0.030670166 -0.63427734
-0.12512207 0.030715942 -0.63525391
-0.12219238 0.030715942 -0.63525391
-0.11920166 0.030715942 -0.63525391
-0.11621094 0.030715942 -0.63525391
-0.11328125 0.030715942 -0.63525391
-0.11010742 0.030670166 -0.63427734
-0.1071167 0.030670166 -0.63427734
-0.10400391 0.030609131 -0.63330078
-0.10107422 0.030609131 -0.63330078
-0.098083496 0.030609131 -0.63330078
-0.094970703 0.030563354 -0.63232422
-0.092041016 0.030563354 -0.63232422
-0.089050293 0.030563354 -0.63232422
-0.086120605 0.030563354 -0.63232422
-0.083129883 0.030563354 -0.63232422
-0.080200195 0.030563354 -0.63232422
-0.077209473 0.030563354 -0.63232422
-0.074279785 0.030563354 -0.63232422
-0.071166992 0.030517578 -0.63134766
-0.068237305 0.030517578 -0.63134766
-0.065307617 0.030517578 -0.63134766
-0.062255859 0.030471802 -0.63037109
-0.059204102 0.030426025 -0.62939453
-0.056182861 0.03036499 -0.62841797
-0.053161621 0.030319214 -0.62744141
-0.050140381 0.030273438 -0.62597656
-0.047119141 0.030227661 -0.625
-0.044219971 0.030227661 -0.625
-0.041290283 0.030227661 -0.625
-0.038360596 0.030227661 -0.625
-0.035430908 0.030227661 -0.625
-0.032501221 0.030227661 -0.625
-0.029632568 0.030273438 -0.62597656
-0.026748657 0.030319214 -0.62744141
-0.023849487 0.03036499 -0.62841797
-0.0209198 0.03036499 -0.62841797
-0.018005371 0.030426025 -0.62939453
-0.015068054 0.030426025 -0.62939453
-0.012123108 0.030426025 -0.62939453
-0.0091781616 0.030426025 -0.62939453
-0.0062294006 0.03036499 -0.62841797
-0.0032901764 0.03036499 -0.62841797
-0.00035142899 0.03036499 -0.62841797
0.0025863647 0.03036499 -0.62841797
0.0055236816 0.03036499 -0.62841797
0.0084457397 0.030319214 -0.62744141
0.011383057 0.030319214 -0.62744141
0.014297485 0.030273438 -0.62597656
0.017196655 0.030227661 -0.625
0.020080566 0.030181885 -0.62402344
0.02293396 0.030075073 -0.62207031
0.025756836 0.029983521 -0.62011719
0.028564453 0.029891968 -0.61816406
0.03125 0.029693604 -0.61425781
0.033905029 0.029495239 -0.61035156
0.036437988 0.029251099 -0.60498047
0.03894043 0.029006958 -0.60009766
0.041351318 0.028717041 -0.59423828
0.043670654 0.028427124 -0.58789062
0.046112061 0.028244019 -0.58398438
0.048492432 0.028045654 -0.58007812
0.050964355 0.027893066 -0.57714844
0.053466797 0.027801514 -0.57519531
0.055969238 0.027709961 -0.57275391
0.058532715 0.027648926 -0.57177734
0.061218262 0.027648926 -0.57177734
0.063903809 0.027648926 -0.57177734
0.06640625 0.027603149 -0.57080078
0.069091797 0.027603149 -0.57080078
0.071777344 0.027603149 -0.57080078
0.074462891 0.027603149 -0.57080078
0.076965332 0.027557373 -0.56982422
0.079650879 0.027557373 -0.56982422
0.082336426 0.027557373 -0.56982422
0.084838867 0.027511597 -0.56884766
0.087524414 0.027511597 -0.56884766
0.090148926 0.027511597 -0.56884766
0.092956543 0.027557373 -0.56982422
0.095825195 0.027603149 -0.57080078
0.098693848 0.027648926 -0.57177734
0.10186768 0.027801514 -0.57519531
0.10510254 0.027938843 -0.578125
0.10876465 0.028182983 -0.58300781
0.11260986 0.0284729 -0.58886719
0.11676025 0.028823853 -0.59619141
0.12158203 0.029312134 -0.60595703
0.1262207 0.02973938 -0.61523438
0.13012695 0.029983521 -0.62011719
0.13391113 0.030181885 -0.62402344
0.1373291 0.030273438 -0.62597656
0.140625 0.03036499 -0.62841797
0.14379883 0.030426025 -0.62939453
0.14672852 0.030426025 -0.62939453
0.14990234 0.030471802 -0.63037109
0.1529541 0.030471802 -0.63037109
0.15588379 0.030471802 -0.63037109
0.15881348 0.030471802 -0.63037109
0.16174316 0.030471802 -0.63037109
0.16442871 0.030426025 -0.62939453
0.1673584 0.030426025 -0.62939453
0.1697998 0.030319214 -0.62744141
0.17248535 0.030273438 -0.62597656
0.17480469 0.030181885 -0.62402344
0.17712402 0.030075073 -0.62207031
0.17944336 0.029983521 -0.62011719
0.1817627 0.029891968 -0.61816406
0.18408203 0.029785156 -0.61621094
0.18640137 0.029693604 -0.61425781
0.18896484 0.029647827 -0.61328125
0.19116211 0.029541016 -0.61132812
0.19372559 0.029495239 -0.61035156
0.19592285 0.029403687 -0.60791016
0.19848633 0.02935791 -0.60693359
0.20092773 0.029312134 -0.60595703
0.20373535 0.029312134 -0.60595703
0.20556641 0.029159546 -0.60302734
0.20776367 0.029067993 -0.60107422
0.27734375 0.038269043 -0.79199219
0.28540039 0.038360596 -0.79394531
0.2890625 0.038360596 -0.79394531
0.29321289 0.038421631 -0.79492188
0.29736328 0.038482666 -0.79589844
0.30102539 0.038482666 -0.79589844
0.3046875 0.038482666 -0.79589844
0.30834961 0.038482666 -0.79589844
0.31225586 0.038482666 -0.79589844
0.31591797 0.038482666 -0.79589844
0.3190918 0.038421631 -0.79492188
0.32299805 0.038421631 -0.79492188
0.32666016 0.038421631 -0.79492188
0.33032227 0.038421631 -0.79492188
0.33740234 0.038360596 -0.79394531
0.34057617 0.038330078 -0.79296875
0.34448242 0.038330078 -0.79296875
0.34863281 0.038360596 -0.79394531
0.35229492 0.038360596 -0.79394531
0.35595703 0.038360596 -0.79394531
0.35961914 0.038360596 -0.79394531
0.36328125 0.038360596 -0.79394531
0.3684082 0.038116455 -0.7890625
0.37158203 0.038085938 -0.78759766
0.37524414 0.038085938 -0.78759766
0.37866211 0.038024902 -0.78662109
0.38183594 0.037994385 -0.78564453
0.38549805 0.037994385 -0.78564453
0.37207031 0.032348633 -0.66943359
0.37475586 0.032318115 -0.66845703
0.3762207 0.032165527 -0.66552734
0.37744141 0.032012939 -0.66210938
0.37890625 0.031860352 -0.65917969
0.37841797 0.031585693 -0.65332031
0.37866211 0.031341553 -0.6484375
0.37866211 0.031097412 -0.64306641
0.37866211 0.030853271 -0.63818359
0.37817383 0.030563354 -0.63232422
0.37744141 0.030273438 -0.62597656
0.35986328 0.028427124 -0.58789062
0.3503418 0.02746582 -0.56787109
0.35180664 0.027359009 -0.56591797
0.35302734 0.027267456 -0.56396484
0.35375977 0.027114868 -0.56103516
0.35522461 0.027023315 -0.55908203
0.35644531 0.026931763 -0.55712891
0.35791016 0.026824951 -0.5546875
0.35986328 0.026779175 -0.55371094
0.36108398 0.026687622 -0.55175781
0.36303711 0.026641846 -0.55078125
0.36425781 0.026535034 -0.54882812
0.36621094 0.026489258 -0.54785156
0.36743164 0.026397705 -0.54589844
0.36914062 0.026351929 -0.54492188
0.37109375 0.026290894 -0.54394531
0.37304688 0.026245117 -0.54296875
0.37475586 0.026199341 -0.54199219
0.37670898 0.026153564 -0.54101562
0.37768555 0.026046753 -0.5390625
0.37890625 0.0259552 -0.53662109
0.37988281 0.025863647 -0.53466797
0.38110352 0.025756836 -0.53271484
0.38208008 0.025665283 -0.53076172
0.38305664 0.02557373 -0.52880859
0.38330078 0.025421143 -0.52587891
0.38427734 0.02532959 -0.52392578
0.38598633 0.025283813 -0.52294922
0.38696289 0.025177002 -0.52099609
0.38867188 0.025131226 -0.52001953
0.38964844 0.025039673 -0.51757812
0.39135742 0.024978638 -0.51660156
0.39282227 0.024932861 -0.515625
0.39453125 0.024887085 -0.51464844
0.39624023 0.024841309 -0.51367188
0.39794922 0.024795532 -0.51269531
0.39941406 0.024749756 -0.51171875
0.40039062 0.024642944 -0.50976562
0.40112305 0.024551392 -0.5078125
0.40185547 0.02444458 -0.50585938
0.40185547 0.024307251 -0.50292969
0.40258789 0.024215698 -0.50048828
0.40234375 0.02406311 -0.49780273
0.40234375 0.023910522 -0.49487305
0.40136719 0.023727417 -0.49072266
0.40039062 0.023529053 -0.48681641
0.40087891 0.0234375 -0.48486328
0.40063477 0.023284912 -0.48168945
0.40136719 0.023193359 -0.47973633
0.40185547 0.023086548 -0.4777832
0.40332031 0.023040771 -0.47680664
0.40380859 0.022949219 -0.47485352
0.40600586 0.022949219 -0.47485352
-0.32080078 0.019195557 -0.43969727
-0.31958008 0.019241333 -0.44067383
-0.31835938 0.019287109 -0.44165039
-0.31616211 0.019287109 -0.44165039
-0.31420898 0.019287109 -0.44165039
-0.31054688 0.019195557 -0.43969727
-0.30712891 0.019104004 -0.4375
-0.30444336 0.019058228 -0.43652344
-0.30175781 0.019012451 -0.43554688
-0.29956055 0.019012451 -0.43554688
-0.296875 0.018966675 -0.43457031
-0.29492188 0.018966675 -0.43457031
-0.29345703 0.019012451 -0.43554688
-0.29223633 0.019058228 -0.43652344
-0.29077148 0.019104004 -0.4375
-0.29003906 0.019195557 -0.43969727
-0.28930664 0.019287109 -0.44165039
-0.28857422 0.019363403 -0.44360352
-0.2890625 0.019546509 -0.44750977
-0.28955078 0.019714355 -0.45166016
-0.29125977 0.019989014 -0.45776367
-0.29296875 0.020248413 -0.46362305
-0.29467773 0.020507812 -0.46972656
-0.29614258 0.020767212 -0.47583008
-0.30322266 0.02142334 -0.49072266
-0.30273438 0.021560669 -0.49389648
-0.3034668 0.021774292 -0.4987793
-0.30419922 0.022003174 -0.50390625
-0.30493164 0.022216797 -0.50878906
-0.30493164 0.022399902 -0.51269531
-0.30493164 0.022567749 -0.51660156
-0.30419922 0.022705078 -0.52001953
-0.30395508 0.022872925 -0.52392578
-0.30444336 0.023086548 -0.52880859
-0.30444336 0.023269653 -0.53271484
-0.30517578 0.023529053 -0.5390625
-0.30615234 0.023788452 -0.54492188
-0.30688477 0.02406311 -0.55078125
-0.30810547 0.024368286 -0.55810547
-0.30883789 0.024627686 -0.56396484
-0.31005859 0.024932861 -0.57080078
-0.3112793 0.025238037 -0.578125
-0.31225586 0.025543213 -0.58496094
-0.31323242 0.025848389 -0.59228516
-0.31469727 0.026199341 -0.60009766
-0.31591797 0.026550293 -0.60791016
-0.31689453 0.026870728 -0.61523438
-0.31762695 0.027175903 -0.62207031
-0.31811523 0.027481079 -0.62939453
-0.31762695 0.027694702 -0.63427734
-0.31665039 0.027877808 -0.63818359
-0.31518555 0.027999878 -0.64111328
-0.3137207 0.028137207 -0.64404297
-0.31274414 0.028305054 -0.6484375
-0.31103516 0.028442383 -0.65136719
-0.30981445 0.028610229 -0.65527344
-0.30834961 0.028747559 -0.65820312
-0.30664062 0.028884888 -0.66113281
-0.30493164 0.029006958 -0.66455078
-0.30224609 0.029052734 -0.66552734
-0.29956055 0.029098511 -0.66650391
-0.29638672 0.029098511 -0.66650391
-0.29248047 0.029006958 -0.66455078
-0.28833008 0.028930664 -0.66210938
-0.28442383 0.028839111 -0.66015625
-0.2800293 0.028701782 -0.65722656
-0.26733398 0.027694702 -0.63427734
-0.26220703 0.027481079 -0.62939453
-0.24938965 0.026428223 -0.60498047
-0.24572754 0.02633667 -0.60302734
-0.2421875 0.026245117 -0.60107422
-0.23925781 0.026245117 -0.60107422
-0.2364502 0.026245117 -0.60107422
-0.23413086 0.026290894 -0.60205078
-0.23168945 0.02633667 -0.60302734
-0.22961426 0.026428223 -0.60498047
-0.22717285 0.026473999 -0.60595703
-0.22509766 0.026550293 -0.60791016
-0.22290039 0.026641846 -0.61035156
-0.2208252 0.026733398 -0.61230469
-0.21862793 0.026824951 -0.61425781
-0.21643066 0.026901245 -0.61621094
-0.21398926 0.026947021 -0.6171875
-0.21179199 0.027038574 -0.61914062
-0.20922852 0.027084351 -0.62011719
-0.20666504 0.027130127 -0.62109375
-0.20373535 0.027130127 -0.62109375
-0.20080566 0.027130127 -0.62109375
-0.19763184 0.027084351 -0.62011719
-0.1940918 0.026992798 -0.61816406
-0.1907959 0.026947021 -0.6171875
-0.18737793 0.026870728 -0.61523438
-0.18359375 0.026733398 -0.61230469
-0.18103027 0.026779175 -0.61328125
-0.1784668 0.026824951 -0.61425781
-0.17578125 0.026870728 -0.61523438
-0.17358398 0.026947021 -0.6171875
-0.17089844 0.026992798 -0.61816406
-0.16833496 0.027038574 -0.61914062
-0.16564941 0.027084351 -0.62011719
-0.16271973 0.027084351 -0.62011719
-0.15991211 0.027084351 -0.62011719
-0.15698242 0.027084351 -0.62011719
-0.15405273 0.027084351 -0.62011719
-0.15112305 0.027084351 -0.62011719
-0.14831543 0.027084351 -0.62011719
-0.14562988 0.027130127 -0.62109375
-0.14294434 0.027175903 -0.62207031
-0.14050293 0.027252197 -0.62402344
-0.13818359 0.027389526 -0.62744141
-0.13586426 0.027526855 -0.63037109
-0.13342285 0.027603149 -0.63232422
-0.13085938 0.027694702 -0.63427734
-0.12805176 0.027740479 -0.63525391
-0.12512207 0.027740479 -0.63525391
-0.12237549 0.027786255 -0.63623047
-0.11920166 0.027740479 -0.63525391
-0.11621094 0.027740479 -0.63525391
-0.11328125 0.027740479 -0.63525391
-0.11010742 0.027694702 -0.63427734
-0.1071167 0.027694702 -0.63427734
-0.10400391 0.027648926 -0.63330078
-0.10107422 0.027648926 -0.63330078
-0.098083496 0.027648926 -0.63330078
-0.095153809 0.027648926 -0.63330078
-0.092041016 0.027603149 -0.63232422
-0.089050293 0.027603149 -0.63232422
-0.086120605 0.027603149 -0.63232422
-0.083129883 0.027603149 -0.63232422
-0.080200195 0.027603149 -0.63232422
-0.077209473 0.027603149 -0.63232422
-0.074279785 0.027603149 -0.63232422
-0.071166992 0.027572632 -0.63134766
-0.068237305 0.027572632 -0.63134766
-0.065185547 0.027526855 -0.63037109
-0.062164307 0.027481079 -0.62939453
-0.059112549 0.027435303 -0.62841797
-0.056091309 0.027389526 -0.62744141
-0.053070068 0.02734375 -0.62597656
-0.050048828 0.027297974 -0.625
-0.047119141 0.027297974 -0.625
-0.044128418 0.027252197 -0.62402344
-0.041229248 0.027252197 -0.62402344
-0.038299561 0.027252197 -0.62402344
-0.035430908 0.027297974 -0.625
-0.032501221 0.027297974 -0.625
-0.029632568 0.02734375 -0.62597656
-0.026748657 0.027389526 -0.62744141
-0.023849487 0.027435303 -0.62841797
-0.020950317 0.027481079 -0.62939453
-0.018005371 0.027481079 -0.62939453
-0.015068054 0.027481079 -0.62939453
-0.012123108 0.027481079 -0.62939453
-0.0091781616 0.027481079 -0.62939453
-0.00623703 0.027481079 -0.62939453
-0.0032901764 0.027435303 -0.62841797
-0.00035142899 0.027435303 -0.62841797
0.0025863647 0.027435303 -0.62841797
0.0055236816 0.027435303 -0.62841797
0.0084457397 0.027389526 -0.62744141
0.011367798 0.02734375 -0.62597656
0.014274597 0.027297974 -0.625
0.017166138 0.027252197 -0.62402344
0.020050049 0.02722168 -0.62304688
0.022888184 0.027130127 -0.62109375
0.02571106 0.027038574 -0.61914062
0.0284729 0.026901245 -0.61621094
0.031204224 0.026779175 -0.61328125
0.033843994 0.026596069 -0.609375
0.036376953 0.026382446 -0.60400391
0.038818359 0.026123047 -0.59814453
0.04119873 0.025848389 -0.59228516
0.043518066 0.025588989 -0.5859375
0.045959473 0.025421143 -0.58203125
0.048339844 0.025238037 -0.578125
0.05078125 0.025115967 -0.57519531
0.053283691 0.025024414 -0.57275391
0.055877686 0.024978638 -0.57177734
0.058532715 0.024978638 -0.57177734
0.061096191 0.024932861 -0.57080078
0.063781738 0.024932861 -0.57080078
0.06640625 0.024932861 -0.57080078
0.069091797 0.024932861 -0.57080078
0.071777344 0.024932861 -0.57080078
0.074462891 0.024932861 -0.57080078
0.076965332 0.024887085 -0.56982422
0.079650879 0.024887085 -0.56982422
0.08215332 0.024841309 -0.56884766
0.084838867 0.024841309 -0.56884766
0.087524414 0.024841309 -0.56884766
0.090148926 0.024841309 -0.56884766
0.092834473 0.024841309 -0.56884766
0.09564209 0.024887085 -0.56982422
0.098693848 0.024978638 -0.57177734
0.10186768 0.025115967 -0.57519531
0.10528564 0.025283813 -0.57910156
0.10913086 0.025543213 -0.58496094
0.11303711 0.025817871 -0.59130859
0.1171875 0.026123047 -0.59814453
0.12176514 0.026519775 -0.60693359
0.1262207 0.026870728 -0.61523438
0.13012695 0.027084351 -0.62011719
0.13391113 0.027252197 -0.62402344
0.1373291 0.02734375 -0.62597656
0.140625 0.027435303 -0.62841797
0.14379883 0.027481079 -0.62939453
0.14672852 0.027481079 -0.62939453
0.14990234 0.027526855 -0.63037109
0.1529541 0.027526855 -0.63037109
0.15588379 0.027526855 -0.63037109
0.15881348 0.027526855 -0.63037109
0.16174316 0.027526855 -0.63037109
0.16467285 0.027526855 -0.63037109
0.1673584 0.027481079 -0.62939453
0.17004395 0.027435303 -0.62841797
0.17248535 0.02734375 -0.62597656
0.17480469 0.027252197 -0.62402344
0.17712402 0.027175903 -0.62207031
0.17944336 0.027084351 -0.62011719
0.1817627 0.026992798 -0.61816406
0.18408203 0.026901245 -0.61621094
0.18664551 0.026870728 -0.61523438
0.18896484 0.026779175 -0.61328125
0.19116211 0.026687622 -0.61132812
0.19372559 0.026641846 -0.61035156
0.19628906 0.026596069 -0.609375
0.19873047 0.026550293 -0.60791016
0.20129395 0.026519775 -0.60693359
0.20410156 0.026519775 -0.60693359
0.2734375 0.034576416 -0.79199219
0.27758789 0.034606934 -0.79296875
0.28173828 0.034667969 -0.79394531
0.28540039 0.034667969 -0.79394531
0.28955078 0.034698486 -0.79492188
0.29321289 0.034698486 -0.79492188
0.29736328 0.034759521 -0.79589844
0.30102539 0.034759521 -0.79589844
0.3046875 0.034759521 -0.79589844
0.30834961 0.034759521 -0.79589844
0.31225586 0.034759521 -0.79589844
0.31591797 0.034759521 -0.79589844
0.3190918 0.034698486 -0.79492188
0.32299805 0.034698486 -0.79492188
0.32617188 0.034667969 -0.79394531
0.32983398 0.034667969 -0.79394531
0.33325195 0.034606934 -0.79296875
0.33691406 0.034606934 -0.79296875
0.34057617 0.034606934 -0.79296875
0.34448242 0.034606934 -0.79296875
0.34863281 0.034667969 -0.79394531
0.35229492 0.034667969 -0.79394531
0.35595703 0.034667969 -0.79394531
0.35961914 0.034667969 -0.79394531
0.36328125 0.034667969 -0.79394531
0.36621094 0.034576416 -0.79199219
0.36889648 0.034484863 -0.79003906
0.37207031 0.034454346 -0.7890625
0.37524414 0.034393311 -0.78759766
0.37915039 0.034393311 -0.78759766
0.38232422 0.034362793 -0.78662109
0.38598633 0.034362793 -0.78662109
0.38916016 0.034301758 -0.78564453
0.39233398 0.03427124 -0.78466797
0.39599609 0.03427124 -0.78466797
0.40063477 0.034057617 -0.77978516
0.40380859 0.033996582 -0.77880859
0.40527344 0.033813477 -0.77490234
0.40576172 0.03326416 -0.76171875
0.375 0.029708862 -0.68017578
0.3737793 0.02935791 -0.67236328
0.37524414 0.02923584 -0.66943359
0.37719727 0.029144287 -0.66748047
0.37915039 0.029052734 -0.66552734
0.38110352 0.028961182 -0.66357422
0.38256836 0.028839111 -0.66015625
0.38378906 0.028701782 -0.65722656
0.3815918 0.028305054 -0.6484375
0.38110352 0.028045654 -0.64208984
0.38061523 0.027786255 -0.63623047
0.38037109 0.027572632 -0.63134766
0.38525391 0.027694702 -0.63427734
0.38452148 0.027435303 -0.62841797
0.34985352 0.024581909 -0.56298828
0.35131836 0.024490356 -0.56103516
0.35375977 0.024490356 -0.56103516
0.35449219 0.024368286 -0.55810547
0.35644531 0.02432251 -0.55712891
0.35791016 0.024230957 -0.5546875
0.35913086 0.024139404 -0.55273438
0.36108398 0.024108887 -0.55175781
0.36230469 0.024017334 -0.54980469
0.36425781 0.023971558 -0.54882812
0.36547852 0.023880005 -0.546875
0.36743164 0.023834229 -0.54589844
0.36914062 0.023788452 -0.54492188
0.37109375 0.023757935 -0.54394531
0.37304688 0.023712158 -0.54296875
0.37475586 0.023666382 -0.54199219
0.37597656 0.023574829 -0.54003906
0.37768555 0.023529053 -0.5390625
0.37890625 0.0234375 -0.53662109
0.37988281 0.023361206 -0.53466797
0.38110352 0.023269653 -0.53271484
0.38134766 0.023132324 -0.52978516
0.38232422 0.02305603 -0.52783203
0.38256836 0.022918701 -0.52490234
0.38354492 0.022827148 -0.52294922
0.38525391 0.022781372 -0.52197266
0.38623047 0.022705078 -0.52001953
0.38793945 0.022659302 -0.51855469
0.38964844 0.022613525 -0.51757812
0.39208984 0.022613525 -0.51757812
0.39379883 0.022567749 -0.51660156
0.39526367 0.022521973 -0.515625
0.39770508 0.022521973 -0.515625
0.39941406 0.022476196 -0.51464844
0.40112305 0.02243042 -0.51367188
0.40258789 0.022399902 -0.51269531
0.40356445 0.02230835 -0.51074219
0.40429688 0.022216797 -0.50878906
0.40429688 0.022079468 -0.50585938
0.4050293 0.022003174 -0.50390625
0.40478516 0.021865845 -0.50048828
0.40551758 0.021774292 -0.4987793
0.40307617 0.021514893 -0.49291992
0.40209961 0.021347046 -0.48876953
0.40185547 0.021209717 -0.48583984
0.40161133 0.021072388 -0.48266602
0.40307617 0.021026611 -0.48168945
0.40356445 0.020950317 -0.47973633
0.40405273 0.020858765 -0.4777832
0.40454102 0.020767212 -0.47583008
0.72607422 0.035308838 -0.80908203
0.72949219 0.035308838 -0.80908203
0.73339844 0.035308838 -0.80908203
0.74169922 0.035369873 -0.81005859
0.76269531 0.035614014 -0.81591797
-0.3215332 0.017181396 -0.44067383
-0.31958008 0.017181396 -0.44067383
-0.31835938 0.017211914 -0.44165039
-0.31616211 0.017211914 -0.44165039
-0.31420898 0.017211914 -0.44165039
-0.31054688 0.01713562 -0.43969727
-0.30786133 0.017089844 -0.43847656
-0.30517578 0.017059326 -0.4375
-0.30249023 0.01701355 -0.43652344
-0.29956055 0.016983032 -0.43554688
-0.29760742 0.016983032 -0.43554688
-0.2956543 0.016983032 -0.43554688
-0.29345703 0.016983032 -0.43554688
-0.29223633 0.01701355 -0.43652344
-0.29077148 0.017059326 -0.4375
-0.28930664 0.017089844 -0.43847656
-0.28857422 0.017181396 -0.44067383
-0.28857422 0.017288208 -0.44360352
-0.28833008 0.017410278 -0.4465332
-0.28881836 0.017562866 -0.45068359
-0.29125977 0.017837524 -0.45776367
-0.29223633 0.018035889 -0.46264648
-0.29003906 0.018035889 -0.46264648
-0.30053711 0.018814087 -0.48266602
-0.30371094 0.019165039 -0.49169922
-0.30395508 0.019332886 -0.49584961
-0.3046875 0.01953125 -0.50048828
-0.3046875 0.019683838 -0.50488281
-0.30541992 0.019882202 -0.50976562
-0.30493164 0.019989014 -0.51269531
-0.30493164 0.02015686 -0.51660156
-0.3046875 0.020309448 -0.52099609
-0.30395508 0.02041626 -0.52392578
-0.30444336 0.020614624 -0.52880859
-0.30444336 0.020782471 -0.53271484
-0.3046875 0.020965576 -0.53808594
-0.30541992 0.021209717 -0.54394531
-0.30639648 0.021438599 -0.54980469
-0.30761719 0.021713257 -0.55712891
-0.30834961 0.021957397 -0.56298828
-0.30957031 0.022216797 -0.56982422
-0.31054688 0.022491455 -0.57714844
-0.31176758 0.022766113 -0.58398438
-0.31323242 0.023086548 -0.59228516
-0.31420898 0.023361206 -0.59912109
-0.31542969 0.023666382 -0.60693359
-0.31689453 0.023986816 -0.61523438
-0.31762695 0.024261475 -0.62207031
-0.31762695 0.024490356 -0.62841797
-0.31713867 0.024688721 -0.63330078
-0.31616211 0.024841309 -0.63720703
-0.31518555 0.025009155 -0.64111328
-0.3137207 0.025115967 -0.64404297
-0.31274414 0.025283813 -0.6484375
-0.31103516 0.025390625 -0.65136719
-0.30981445 0.025558472 -0.65527344
-0.30859375 0.02571106 -0.65917969
-0.30712891 0.025817871 -0.66210938
-0.30517578 0.025939941 -0.66552734
-0.30273438 0.025985718 -0.66650391
-0.29956055 0.025985718 -0.66650391
-0.29638672 0.025985718 -0.66650391
-0.29248047 0.025909424 -0.66455078
-0.28833008 0.025817871 -0.66210938
-0.28442383 0.025741577 -0.66015625
-0.27954102 0.025588989 -0.65625
-0.26977539 0.024963379 -0.64013672
-0.25585938 0.02394104 -0.61425781
-0.25024414 0.023666382 -0.60693359
-0.24621582 0.02355957 -0.60400391
-0.24255371 0.023483276 -0.60205078
-0.23974609 0.023483276 -0.60205078
-0.23693848 0.023483276 -0.60205078
-0.23449707 0.023513794 -0.60302734
-0.23205566 0.02355957 -0.60400391
-0.22998047 0.023635864 -0.60595703
-0.22790527 0.023712158 -0.60791016
-0.22583008 0.023788452 -0.61035156
-0.22363281 0.023864746 -0.61230469
-0.22119141 0.023910522 -0.61328125
-0.21899414 0.023986816 -0.61523438
-0.21679688 0.02406311 -0.6171875
-0.21459961 0.024139404 -0.61914062
-0.21203613 0.024185181 -0.62011719
-0.20947266 0.024215698 -0.62109375
-0.20690918 0.024261475 -0.62207031
-0.20410156 0.024261475 -0.62207031
-0.20117188 0.024261475 -0.62207031
-0.19824219 0.024261475 -0.62207031
-0.19494629 0.024215698 -0.62109375
-0.19177246 0.024185181 -0.62011719
-0.18859863 0.024139404 -0.61914062
-0.1854248 0.024108887 -0.61816406
-0.18249512 0.024108887 -0.61816406
-0.17993164 0.024139404 -0.61914062
-0.17724609 0.024185181 -0.62011719
-0.17431641 0.024185181 -0.62011719
-0.17175293 0.024215698 -0.62109375
-0.16906738 0.024261475 -0.62207031
-0.16625977 0.024261475 -0.62207031
-0.16333008 0.024261475 -0.62207031
-0.16015625 0.024215698 -0.62109375
-0.15722656 0.024215698 -0.62109375
-0.15429688 0.024215698 -0.62109375
-0.15136719 0.024215698 -0.62109375
-0.14855957 0.024215698 -0.62109375
-0.14587402 0.024261475 -0.62207031
-0.14343262 0.024337769 -0.62402344
-0.14086914 0.024414062 -0.62597656
-0.13867188 0.024536133 -0.62939453
-0.13635254 0.024658203 -0.63232422
-0.13378906 0.024734497 -0.63427734
-0.13110352 0.024765015 -0.63525391
-0.1282959 0.024810791 -0.63623047
-0.12536621 0.024810791 -0.63623047
-0.12237549 0.024810791 -0.63623047
-0.11938477 0.024810791 -0.63623047
-0.11621094 0.024765015 -0.63525391
-0.11328125 0.024765015 -0.63525391
-0.11010742 0.024734497 -0.63427734
-0.1071167 0.024734497 -0.63427734
-0.10400391 0.024688721 -0.63330078
-0.10107422 0.024688721 -0.63330078
-0.098083496 0.024688721 -0.63330078
-0.094970703 0.024658203 -0.63232422
-0.092041016 0.024658203 -0.63232422
-0.089050293 0.024658203 -0.63232422
-0.086120605 0.024658203 -0.63232422
-0.083129883 0.024658203 -0.63232422
-0.080200195 0.024658203 -0.63232422
-0.077209473 0.024658203 -0.63232422
-0.074157715 0.024612427 -0.63134766
-0.071166992 0.024612427 -0.63134766
-0.068115234 0.02456665 -0.63037109
-0.065185547 0.02456665 -0.63037109
-0.062164307 0.024536133 -0.62939453
-0.059112549 0.024490356 -0.62841797
-0.055999756 0.024414062 -0.62597656
-0.052978516 0.024383545 -0.625
-0.049987793 0.024337769 -0.62402344
-0.047058105 0.024337769 -0.62402344
-0.044067383 0.024291992 -0.62304688
-0.041229248 0.024337769 -0.62402344
-0.038299561 0.024337769 -0.62402344
-0.035430908 0.024383545 -0.625
-0.032562256 0.024414062 -0.62597656
-0.029693604 0.024459839 -0.62744141
-0.026794434 0.024490356 -0.62841797
-0.023895264 0.024536133 -0.62939453
-0.020950317 0.024536133 -0.62939453
-0.018035889 0.02456665 -0.63037109
-0.015090942 0.02456665 -0.63037109
-0.012123108 0.024536133 -0.62939453
-0.0091781616 0.024536133 -0.62939453
-0.00623703 0.024536133 -0.62939453
-0.0032939911 0.024536133 -0.62939453
-0.00035142899 0.024490356 -0.62841797
0.0025863647 0.024490356 -0.62841797
0.0055160522 0.024459839 -0.62744141
0.0084457397 0.024459839 -0.62744141
0.011367798 0.024414062 -0.62597656
0.014251709 0.024337769 -0.62402344
0.01713562 0.024291992 -0.62304688
0.019989014 0.024215698 -0.62109375
0.022827148 0.024139404 -0.61914062
0.025588989 0.024017334 -0.61621094
0.028335571 0.023910522 -0.61328125
0.031051636 0.023788452 -0.61035156
0.033660889 0.023635864 -0.60595703
0.036193848 0.0234375 -0.60107422
0.038696289 0.023239136 -0.59619141
0.04107666 0.023010254 -0.58984375
0.043365479 0.022766113 -0.58398438
0.045806885 0.022613525 -0.58007812
0.048156738 0.022460938 -0.57617188
0.050689697 0.022384644 -0.57421875
0.053192139 0.02230835 -0.57177734
0.055755615 0.022262573 -0.57080078
0.058441162 0.022262573 -0.57080078
0.061096191 0.022262573 -0.57080078
0.063781738 0.022262573 -0.57080078
0.06640625 0.022262573 -0.57080078
0.069091797 0.022262573 -0.57080078
0.071777344 0.022262573 -0.57080078
0.07434082 0.022216797 -0.56982422
0.076965332 0.022216797 -0.56982422
0.079528809 0.022186279 -0.56884766
0.08215332 0.022186279 -0.56884766
0.084655762 0.022140503 -0.56787109
0.087341309 0.022140503 -0.56787109
0.090026855 0.022140503 -0.56787109
0.092834473 0.022186279 -0.56884766
0.095825195 0.022262573 -0.57080078
0.098815918 0.022338867 -0.57275391
0.10205078 0.022460938 -0.57617188
0.10546875 0.022613525 -0.58007812
0.10931396 0.022857666 -0.5859375
0.11340332 0.023117065 -0.59326172
0.11755371 0.023391724 -0.60009766
0.12194824 0.023712158 -0.60791016
0.1262207 0.023986816 -0.61523438
0.13012695 0.024185181 -0.62011719
0.13391113 0.024337769 -0.62402344
0.1373291 0.024414062 -0.62597656
0.140625 0.024490356 -0.62841797
0.14355469 0.024490356 -0.62841797
0.14672852 0.024536133 -0.62939453
0.14990234 0.02456665 -0.63037109
0.1529541 0.02456665 -0.63037109
0.15588379 0.02456665 -0.63037109
0.15881348 0.02456665 -0.63037109
0.16174316 0.02456665 -0.63037109
0.16467285 0.02456665 -0.63037109
0.1673584 0.024536133 -0.62939453
0.17004395 0.024490356 -0.62841797
0.17248535 0.024414062 -0.62597656
0.17480469 0.024337769 -0.62402344
0.17712402 0.024261475 -0.62207031
0.17944336 0.024185181 -0.62011719
0.1817627 0.024108887 -0.61816406
0.18408203 0.024017334 -0.61621094
0.18664551 0.023986816 -0.61523438
0.18896484 0.023910522 -0.61328125
0.19152832 0.023864746 -0.61230469
0.19372559 0.023788452 -0.61035156
0.19628906 0.023757935 -0.609375
0.19909668 0.023757935 -0.609375
0.20166016 0.023712158 -0.60791016
0.20446777 0.023712158 -0.60791016
0.26953125 0.030838013 -0.79101562
0.2734375 0.03086853 -0.79199219
0.27758789 0.030914307 -0.79296875
0.28173828 0.030960083 -0.79394531
0.28564453 0.030990601 -0.79492188
0.28955078 0.030990601 -0.79492188
0.29321289 0.030990601 -0.79492188
0.29736328 0.031036377 -0.79589844
0.30102539 0.031036377 -0.79589844
0.3046875 0.031036377 -0.79589844
0.30834961 0.031036377 -0.79589844
0.31225586 0.031036377 -0.79589844
0.31542969 0.030990601 -0.79492188
0.3190918 0.030990601 -0.79492188
0.32250977 0.030960083 -0.79394531
0.32617188 0.030960083 -0.79394531
0.32983398 0.030960083 -0.79394531
0.33325195 0.030914307 -0.79296875
0.33691406 0.030914307 -0.79296875
0.34106445 0.030960083 -0.79394531
0.34472656 0.030960083 -0.79394531
0.34863281 0.030960083 -0.79394531
0.35229492 0.030960083 -0.79394531
0.35595703 0.030960083 -0.79394531
0.35961914 0.030960083 -0.79394531
0.36328125 0.030960083 -0.79394531
0.36621094 0.03086853 -0.79199219
0.36938477 0.030838013 -0.79101562
0.37255859 0.030792236 -0.79003906
0.3762207 0.030792236 -0.79003906
0.37963867 0.030761719 -0.7890625
0.3828125 0.030715942 -0.78759766
0.38647461 0.030715942 -0.78759766
0.38964844 0.030685425 -0.78662109
0.39331055 0.030685425 -0.78662109
0.39648438 0.030639648 -0.78564453
0.3996582 0.030593872 -0.78466797
0.40283203 0.030563354 -0.78369141
0.40551758 0.030487061 -0.78173828
0.4074707 0.03036499 -0.77880859
0.40795898 0.030136108 -0.77294922
0.40991211 0.030014038 -0.76953125
0.41259766 0.029937744 -0.76757812
0.4128418 0.029693604 -0.76171875
0.41748047 0.029785156 -0.76367188
0.37744141 0.026687622 -0.68457031
0.3737793 0.0262146 -0.67236328
0.37573242 0.026138306 -0.67041016
0.37792969 0.026062012 -0.66845703
0.37988281 0.025985718 -0.66650391
0.38232422 0.025939941 -0.66552734
0.38378906 0.025817871 -0.66210938
0.38574219 0.025741577 -0.66015625
0.38745117 0.025665283 -0.65820312
0.3840332 0.025238037 -0.64746094
0.38183594 0.024887085 -0.63818359
0.38232422 0.024734497 -0.63427734
0.38525391 0.024734497 -0.63427734
0.35400391 0.021713257 -0.55712891
0.35595703 0.021682739 -0.55615234
0.35717773 0.021591187 -0.55371094
0.35913086 0.021560669 -0.55273438
0.36035156 0.021484375 -0.55078125
0.36230469 0.021438599 -0.54980469
0.36425781 0.021408081 -0.54882812
0.36547852 0.021316528 -0.546875
0.36743164 0.021286011 -0.54589844
0.36914062 0.021240234 -0.54492188
0.37109375 0.021209717 -0.54394531
0.37304688 0.02116394 -0.54296875
0.37402344 0.021087646 -0.54101562
0.37597656 0.021057129 -0.54003906
0.37695312 0.020965576 -0.53808594
0.37817383 0.020889282 -0.53564453
0.37915039 0.020812988 -0.53369141
0.38037109 0.020736694 -0.53173828
0.38061523 0.020614624 -0.52880859
0.3815918 0.02053833 -0.52685547
0.38183594 0.02041626 -0.52392578
0.3828125 0.020339966 -0.52197266
0.38452148 0.020309448 -0.52099609
0.38623047 0.020263672 -0.52001953
0.38793945 0.020233154 -0.51855469
0.38964844 0.020187378 -0.51757812
0.39208984 0.020187378 -0.51757812
0.39453125 0.020187378 -0.51757812
0.39624023 0.02015686 -0.51660156
0.3984375 0.02015686 -0.51660156
0.40087891 0.02015686 -0.51660156
0.40258789 0.020111084 -0.515625
0.40429688 0.020065308 -0.51464844
0.4050293 0.019989014 -0.51269531
0.40576172 0.01991272 -0.51074219
0.40673828 0.019836426 -0.50878906
0.4074707 0.019760132 -0.50683594
0.40820312 0.019683838 -0.50488281
0.40795898 0.019561768 -0.50195312
0.40380859 0.019256592 -0.49389648
0.40283203 0.019088745 -0.48974609
0.40258789 0.018981934 -0.48681641
0.40234375 0.018859863 -0.48388672
0.40307617 0.018783569 -0.48168945
0.40429688 0.018737793 -0.48071289
0.40576172 0.018707275 -0.47973633
0.68798828 0.031188965 -0.79980469
0.69238281 0.031219482 -0.80078125
0.69775391 0.031311035 -0.80273438
0.70507812 0.031463623 -0.80712891
0.70996094 0.031494141 -0.80810547
0.71435547 0.031524658 -0.80908203
0.71826172 0.031524658 -0.80908203
0.72314453 0.031585693 -0.81005859
0.7265625 0.031585693 -0.81005859
0.73046875 0.031585693 -0.81005859
0.73535156 0.031616211 -0.81103516
0.73925781 0.031616211 -0.81103516
0.74267578 0.031616211 -0.81103516
0.74755859 0.031646729 -0.81201172
0.75244141 0.031677246 -0.81298828
0.75585938 0.031677246 -0.81298828
0.76074219 0.031738281 -0.81396484
0.76464844 0.031738281 -0.81396484
0.77050781 0.031799316 -0.81591797
0.77587891 0.031890869 -0.81787109
-0.3215332 0.01512146 -0.44067383
-0.3203125 0.015151978 -0.44165039
-0.31835938 0.015151978 -0.44165039
-0.31616211 0.015151978 -0.44165039
-0.31420898 0.015151978 -0.44165039
-0.3112793 0.01512146 -0.44067383
-0.30786133 0.015052795 -0.43847656
-0.30517578 0.015014648 -0.4375
-0.30249023 0.014976501 -0.43652344
-0.29956055 0.014945984 -0.43554688
-0.29760742 0.014945984 -0.43554688
-0.2956543 0.014945984 -0.43554688
-0.29345703 0.014945984 -0.43554688
-0.29150391 0.014945984 -0.43554688
-0.29003906 0.014976501 -0.43652344
-0.28930664 0.015052795 -0.43847656
-0.28808594 0.015083313 -0.43969727
-0.2878418 0.015190125 -0.44262695
-0.28710938 0.015258789 -0.44458008
-0.28759766 0.015396118 -0.44873047
-0.28881836 0.015563965 -0.45361328
-0.29223633 0.015869141 -0.46264648
-0.30273438 0.016555786 -0.48266602
-0.30371094 0.016738892 -0.48779297
-0.30444336 0.016906738 -0.49291992
-0.3046875 0.017044067 -0.49682617
-0.30541992 0.017211914 -0.50195312
-0.30541992 0.017349243 -0.50585938
-0.30541992 0.017486572 -0.50976562
-0.30541992 0.017623901 -0.51367188
-0.30493164 0.017730713 -0.51660156
-0.3046875 0.017868042 -0.52099609
-0.3046875 0.018005371 -0.52490234
-0.30444336 0.0181427 -0.52880859
-0.30444336 0.018280029 -0.53271484
-0.3046875 0.018447876 -0.53808594
-0.30541992 0.018661499 -0.54394531
-0.30639648 0.018875122 -0.54980469
-0.30712891 0.019073486 -0.55615234
-0.30834961 0.019317627 -0.56298828
-0.30957031 0.019561768 -0.56982422
-0.31054688 0.019805908 -0.57714844
-0.31176758 0.02003479 -0.58398438
-0.31274414 0.020278931 -0.59130859
-0.31420898 0.020553589 -0.59912109
-0.31494141 0.020797729 -0.60595703
-0.31616211 0.021072388 -0.61425781
-0.31640625 0.021286011 -0.62011719
-0.31713867 0.021514893 -0.62744141
-0.31665039 0.021697998 -0.63232422
-0.31567383 0.021835327 -0.63623047
-0.31469727 0.021972656 -0.64013672
-0.3137207 0.022109985 -0.64404297
-0.31274414 0.022247314 -0.6484375
-0.31152344 0.022384644 -0.65234375
-0.31030273 0.022521973 -0.65625
-0.30859375 0.022628784 -0.65917969
-0.30737305 0.022766113 -0.66357422
-0.30517578 0.022827148 -0.66552734
-0.30297852 0.022903442 -0.66748047
-0.30004883 0.022903442 -0.66748047
-0.29638672 0.022857666 -0.66650391
-0.29296875 0.022827148 -0.66552734
-0.28881836 0.022766113 -0.66357422
-0.28442383 0.022659302 -0.66015625
-0.2800293 0.02255249 -0.65722656
-0.2644043 0.021514893 -0.62744141
-0.25683594 0.021148682 -0.61621094
-0.25048828 0.020874023 -0.60791016
-0.24658203 0.020767212 -0.60498047
-0.24291992 0.020690918 -0.60302734
-0.23974609 0.0206604 -0.60205078
-0.23693848 0.0206604 -0.60205078
-0.23449707 0.020690918 -0.60302734
-0.23242188 0.020767212 -0.60498047
-0.22998047 0.020797729 -0.60595703
-0.22790527 0.020874023 -0.60791016
-0.22583008 0.020935059 -0.61035156
-0.22399902 0.02104187 -0.61328125
-0.22192383 0.021102905 -0.61523438
-0.21936035 0.021148682 -0.61621094
-0.21716309 0.021209717 -0.61816406
-0.21496582 0.021286011 -0.62011719
-0.21240234 0.021316528 -0.62109375
-0.20983887 0.021347046 -0.62207031
-0.20727539 0.021377563 -0.62304688
-0.2043457 0.021377563 -0.62304688
-0.20178223 0.02142334 -0.62402344
-0.19885254 0.02142334 -0.62402344
-0.19567871 0.021377563 -0.62304688
-0.19274902 0.021377563 -0.62304688
-0.18981934 0.021377563 -0.62304688
-0.18652344 0.021347046 -0.62207031
-0.18371582 0.021347046 -0.62207031
-0.18078613 0.021347046 -0.62207031
-0.17810059 0.021377563 -0.62304688
-0.1751709 0.021377563 -0.62304688
-0.17236328 0.021377563 -0.62304688
-0.16943359 0.021377563 -0.62304688
-0.16650391 0.021377563 -0.62304688
-0.16357422 0.021377563 -0.62304688
-0.16064453 0.021377563 -0.62304688
-0.1574707 0.021347046 -0.62207031
-0.15454102 0.021347046 -0.62207031
-0.15161133 0.021347046 -0.62207031
-0.14892578 0.021377563 -0.62304688
-0.14624023 0.02142334 -0.62402344
-0.14355469 0.021453857 -0.625
-0.14111328 0.021514893 -0.62744141
-0.13903809 0.021652222 -0.63134766
-0.13659668 0.021728516 -0.63330078
-0.1340332 0.021789551 -0.63525391
-0.13122559 0.021835327 -0.63623047
-0.1282959 0.021835327 -0.63623047
-0.12536621 0.021835327 -0.63623047
-0.12237549 0.021835327 -0.63623047
-0.11938477 0.021835327 -0.63623047
-0.11621094 0.021789551 -0.63525391
-0.11328125 0.021789551 -0.63525391
-0.11010742 0.021759033 -0.63427734
-0.10699463 0.021728516 -0.63330078
-0.10400391 0.021728516 -0.63330078
-0.10107422 0.021728516 -0.63330078
-0.098083496 0.021728516 -0.63330078
-0.094970703 0.021697998 -0.63232422
-0.092041016 0.021697998 -0.63232422
-0.089050293 0.021697998 -0.63232422
-0.086120605 0.021697998 -0.63232422
-0.083129883 0.021697998 -0.63232422
-0.080200195 0.021697998 -0.63232422
-0.077087402 0.021652222 -0.63134766
-0.074157715 0.021652222 -0.63134766
-0.071166992 0.021652222 -0.63134766
-0.068115234 0.021621704 -0.63037109
-0.065063477 0.021591187 -0.62939453
-0.062042236 0.021560669 -0.62841797
-0.059020996 0.021514893 -0.62744141
-0.055908203 0.021453857 -0.625
-0.052886963 0.02142334 -0.62402344
-0.04989624 0.021377563 -0.62304688
-0.04699707 0.021377563 -0.62304688
-0.044067383 0.021377563 -0.62304688
-0.041137695 0.021377563 -0.62304688
-0.038299561 0.02142334 -0.62402344
-0.035369873 0.02142334 -0.62402344
-0.032562256 0.021484375 -0.62597656
-0.029693604 0.021514893 -0.62744141
-0.026794434 0.021560669 -0.62841797
-0.023895264 0.021591187 -0.62939453
-0.020980835 0.021621704 -0.63037109
-0.018035889 0.021621704 -0.63037109
-0.015090942 0.021621704 -0.63037109
-0.012145996 0.021621704 -0.63037109
-0.0091781616 0.021591187 -0.62939453
-0.00623703 0.021591187 -0.62939453
-0.0032939911 0.021591187 -0.62939453
-0.00035142899 0.021560669 -0.62841797
0.0025863647 0.021560669 -0.62841797
0.0055160522 0.021514893 -0.62744141
0.0084381104 0.021484375 -0.62597656
0.01134491 0.021453857 -0.625
0.014228821 0.021377563 -0.62304688
0.017105103 0.021347046 -0.62207031
0.019927979 0.021240234 -0.61914062
0.022750854 0.021179199 -0.6171875
0.025466919 0.02104187 -0.61328125
0.028198242 0.020935059 -0.61035156
0.030899048 0.020828247 -0.60693359
0.033508301 0.020690918 -0.60302734
0.03604126 0.020523071 -0.59814453
0.038513184 0.020355225 -0.59326172
0.040863037 0.020141602 -0.58691406
0.043212891 0.019973755 -0.58203125
0.045623779 0.019836426 -0.578125
0.04800415 0.019699097 -0.57421875
0.050506592 0.019622803 -0.57177734
0.053100586 0.019592285 -0.57080078
0.055755615 0.019592285 -0.57080078
0.058319092 0.019561768 -0.56982422
0.061096191 0.019592285 -0.57080078
0.063781738 0.019592285 -0.57080078
0.06640625 0.019592285 -0.57080078
0.069091797 0.019592285 -0.57080078
0.071655273 0.019561768 -0.56982422
0.07434082 0.019561768 -0.56982422
0.076965332 0.019561768 -0.56982422
0.079528809 0.019515991 -0.56884766
0.08215332 0.019515991 -0.56884766
0.084655762 0.019485474 -0.56787109
0.087341309 0.019485474 -0.56787109
0.090026855 0.019485474 -0.56787109
0.092834473 0.019515991 -0.56884766
0.095825195 0.019592285 -0.57080078
0.098815918 0.019668579 -0.57275391
0.10223389 0.019805908 -0.57714844
0.10583496 0.019973755 -0.58203125
0.10968018 0.020172119 -0.58789062
0.11376953 0.02041626 -0.59521484
0.11791992 0.0206604 -0.60205078
0.12237549 0.020935059 -0.61035156
0.12646484 0.021148682 -0.61621094
0.13037109 0.021316528 -0.62109375
0.13391113 0.02142334 -0.62402344
0.1373291 0.021484375 -0.62597656
0.140625 0.021560669 -0.62841797
0.14355469 0.021560669 -0.62841797
0.14672852 0.021591187 -0.62939453
0.14990234 0.021621704 -0.63037109
0.1529541 0.021621704 -0.63037109
0.15588379 0.021621704 -0.63037109
0.15881348 0.021621704 -0.63037109
0.16174316 0.021621704 -0.63037109
0.16467285 0.021621704 -0.63037109
0.1673584 0.021591187 -0.62939453
0.17004395 0.021560669 -0.62841797
0.17248535 0.021484375 -0.62597656
0.17480469 0.02142334 -0.62402344
0.17712402 0.021347046 -0.62207031
0.17944336 0.021286011 -0.62011719
0.1817627 0.021209717 -0.61816406
0.18408203 0.021148682 -0.61621094
0.18664551 0.021102905 -0.61523438
0.18896484 0.02104187 -0.61328125
0.19152832 0.021011353 -0.61230469
0.19396973 0.020965576 -0.61132812
0.1965332 0.020935059 -0.61035156
0.19909668 0.020904541 -0.609375
0.2019043 0.020904541 -0.609375
0.20483398 0.020904541 -0.609375
0.26953125 0.027130127 -0.79101562
0.2734375 0.027175903 -0.79199219
0.27807617 0.027236938 -0.79394531
0.28173828 0.027236938 -0.79394531
0.28564453 0.027267456 -0.79492188
0.28955078 0.027267456 -0.79492188
0.29345703 0.027313232 -0.79589844
0.29736328 0.027313232 -0.79589844
0.30102539 0.027313232 -0.79589844
0.3046875 0.027313232 -0.79589844
0.30834961 0.027313232 -0.79589844
0.31225586 0.027313232 -0.79589844
0.31542969 0.027267456 -0.79492188
0.3190918 0.027267456 -0.79492188
0.32250977 0.027236938 -0.79394531
0.32617188 0.027236938 -0.79394531
0.32983398 0.027236938 -0.79394531
0.33374023 0.027236938 -0.79394531
0.33740234 0.027236938 -0.79394531
0.34106445 0.027236938 -0.79394531
0.34472656 0.027236938 -0.79394531
0.34863281 0.027236938 -0.79394531
0.35229492 0.027236938 -0.79394531
0.35595703 0.027236938 -0.79394531
0.35961914 0.027236938 -0.79394531
0.36328125 0.027236938 -0.79394531
0.36669922 0.027206421 -0.79296875
0.36987305 0.027175903 -0.79199219
0.37304688 0.027130127 -0.79101562
0.37670898 0.027130127 -0.79101562
0.38012695 0.027099609 -0.79003906
0.38330078 0.027069092 -0.7890625
0.38696289 0.027069092 -0.7890625
0.39013672 0.027038574 -0.78759766
0.39379883 0.027038574 -0.78759766
0.39697266 0.026992798 -0.78662109
0.40014648 0.02696228 -0.78564453
0.40332031 0.026931763 -0.78466797
0.40649414 0.026901245 -0.78369141
0.40917969 0.026824951 -0.78173828
0.41064453 0.026687622 -0.77783203
0.41210938 0.026550293 -0.77392578
0.41455078 0.026473999 -0.77197266
0.41772461 0.026443481 -0.77099609
0.41479492 0.026031494 -0.75878906
0.37841797 0.02355957 -0.68652344
0.37768555 0.02331543 -0.67919922
0.37646484 0.023040771 -0.67138672
0.37841797 0.022964478 -0.66943359
0.38085938 0.02293396 -0.66845703
0.38305664 0.022857666 -0.66650391
0.38500977 0.022796631 -0.66455078
0.38745117 0.022766113 -0.66357422
0.3894043 0.022689819 -0.66113281
0.38598633 0.02230835 -0.65039062
0.47119141 0.026626587 -0.77587891
0.47436523 0.026580811 -0.77490234
0.47363281 0.02633667 -0.76757812
0.4777832 0.026382446 -0.76855469
0.47827148 0.026199341 -0.76367188
0.48242188 0.026245117 -0.76464844
0.49291992 0.026626587 -0.77587891
0.49926758 0.026763916 -0.77978516
0.51660156 0.027099609 -0.79003906
0.52783203 0.027313232 -0.79589844
0.53222656 0.02734375 -0.796875
0.37402344 0.018554688 -0.54101562
0.37524414 0.018493652 -0.5390625
0.37695312 0.018447876 -0.53808594
0.37817383 0.018386841 -0.53564453
0.37915039 0.018310547 -0.53369141
0.37963867 0.018218994 -0.53076172
0.38061523 0.0181427 -0.52880859
0.38085938 0.018035889 -0.52587891
0.38037109 0.01789856 -0.52197266
0.38208008 0.017868042 -0.52099609
0.38305664 0.017807007 -0.51855469
0.38549805 0.017807007 -0.51855469
0.38720703 0.01776123 -0.51757812
0.38964844 0.01776123 -0.51757812
0.39208984 0.01776123 -0.51757812
0.39453125 0.01776123 -0.51757812
0.39697266 0.01776123 -0.51757812
0.39941406 0.01776123 -0.51757812
0.40185547 0.01776123 -0.51757812
0.40405273 0.01776123 -0.51757812
0.40576172 0.017730713 -0.51660156
0.4074707 0.017700195 -0.515625
0.40820312 0.017623901 -0.51367188
0.40893555 0.017562866 -0.51171875
0.40991211 0.017486572 -0.50976562
0.41137695 0.017456055 -0.50878906
0.41210938 0.01739502 -0.50683594
0.68408203 0.027450562 -0.79980469
0.68798828 0.027450562 -0.79980469
0.69238281 0.027481079 -0.80078125
0.69775391 0.027542114 -0.80273438
0.70507812 0.027679443 -0.80712891
0.70996094 0.02772522 -0.80810547
0.71435547 0.027755737 -0.80908203
0.71923828 0.027786255 -0.81005859
0.72314453 0.027786255 -0.81005859
0.72753906 0.027832031 -0.81103516
0.73144531 0.027832031 -0.81103516
0.73535156 0.027832031 -0.81103516
0.73925781 0.027832031 -0.81103516
0.74267578 0.027832031 -0.81103516
0.74755859 0.027862549 -0.81201172
0.75146484 0.027862549 -0.81201172
0.75585938 0.027893066 -0.81298828
0.75976562 0.027893066 -0.81298828
0.76367188 0.027893066 -0.81298828
0.76855469 0.027923584 -0.81396484
0.77246094 0.027923584 -0.81396484
0.77587891 0.027923584 -0.81396484
0.78076172 0.02796936 -0.81494141
0.78564453 0.027999878 -0.81591797
0.78955078 0.027999878 -0.81591797
0.79345703 0.027999878 -0.81591797
0.796875 0.027999878 -0.81591797
0.80078125 0.027999878 -0.81591797
-0.32226562 0.013084412 -0.44165039
-0.3203125 0.013084412 -0.44165039
-0.31835938 0.013084412 -0.44165039
-0.31616211 0.013084412 -0.44165039
-0.31420898 0.013084412 -0.44165039
-0.3112793 0.013053894 -0.44067383
-0.30786133 0.013000488 -0.43847656
-0.30517578 0.012969971 -0.4375
-0.30249023 0.012939453 -0.43652344
-0.29956055 0.012908936 -0.43554688
-0.29760742 0.012908936 -0.43554688
-0.2956543 0.012908936 -0.43554688
-0.29345703 0.012908936 -0.43554688
-0.29150391 0.012908936 -0.43554688
-0.29003906 0.012939453 -0.43652344
-0.28881836 0.012969971 -0.4375
-0.28735352 0.013000488 -0.43847656
-0.28662109 0.013053894 -0.44067383
-0.28637695 0.013145447 -0.44360352
-0.28637695 0.013237 -0.4465332
-0.30224609 0.014068604 -0.47485352
-0.30249023 0.014190674 -0.47875977
-0.3034668 0.014335632 -0.48388672
-0.30371094 0.014457703 -0.48779297
-0.30444336 0.014602661 -0.49291992
-0.30517578 0.014755249 -0.49780273
-0.30541992 0.01486969 -0.50195312
-0.30541992 0.01499176 -0.50585938
-0.30541992 0.015106201 -0.50976562
-0.30541992 0.015228271 -0.51367188
-0.30493164 0.015319824 -0.51660156
-0.3046875 0.015434265 -0.52099609
-0.3046875 0.015556335 -0.52490234
-0.30444336 0.015670776 -0.52880859
-0.30444336 0.015792847 -0.53271484
-0.3046875 0.015945435 -0.53808594
-0.30493164 0.016082764 -0.54296875
-0.3059082 0.016265869 -0.54882812
-0.30664062 0.016448975 -0.5546875
-0.30786133 0.016647339 -0.56201172
-0.30908203 0.016860962 -0.56884766
-0.31005859 0.017074585 -0.57617188
-0.31176758 0.017303467 -0.58398438
-0.31274414 0.01751709 -0.59130859
-0.3137207 0.017730713 -0.59814453
-0.31445312 0.017929077 -0.60498047
-0.31518555 0.0181427 -0.61230469
-0.31591797 0.018356323 -0.61914062
-0.31616211 0.01852417 -0.625
-0.31616211 0.018707275 -0.63134766
